ply
format ascii 1.0
element vertex 1452
property float x
property float y
property float z
property uchar red
property uchar green
property uchar blue
end_header
-17.622 0.764 -16.041 180 180 180
-42.244 -0.144 -10.952 180 180 180
-96.768 1.136 4.986 180 180 180
-92.939 0.048 4.683 180 180 180
-2.772 -1.771 -3.282 180 180 180
-88.993 1.143 8.602 180 180 180
-46.169 -0.003 -11.691 180 180 180
92.427 -0.461 14.151 180 180 180
-20.045 0.204 6.788 180 180 180
-5.062 -0.289 -3.766 180 180 180
-51.392 -1.528 2.335 180 180 180
-75.473 1.306 -1.951 180 180 180
79.237 -1.696 18.448 180 180 180
21.600 -1.018 18.104 180 180 180
92.939 1.546 -3.174 180 180 180
61.877 0.477 -16.626 180 180 180
34.169 1.480 -5.628 180 180 180
31.882 0.667 -0.176 180 180 180
-61.978 -0.379 -13.433 180 180 180
-16.845 -1.127 -16.754 180 180 180
74.650 -1.282 -2.621 180 180 180
29.434 -0.638 -8.724 180 180 180
-40.508 0.962 11.739 180 180 180
13.006 -1.049 -6.542 180 180 180
87.646 1.345 10.783 180 180 180
45.749 0.561 2.655 180 180 180
99.326 -1.986 -16.309 180 180 180
-3.531 0.239 1.564 180 180 180
6.637 0.326 9.623 180 180 180
75.506 1.905 -18.303 180 180 180
14.468 -1.367 -0.458 180 180 180
72.871 -0.031 -0.418 180 180 180
62.459 1.853 4.983 180 180 180
91.912 1.357 -16.003 180 180 180
41.267 -1.382 6.608 180 180 180
-32.799 0.128 -0.996 180 180 180
36.408 -1.330 -8.755 180 180 180
18.007 1.207 -3.939 180 180 180
-27.571 -1.848 -17.817 180 180 180
63.446 1.267 -17.847 180 180 180
-30.925 -1.587 12.601 180 180 180
99.854 1.174 1.493 180 180 180
-17.902 -0.142 -9.814 180 180 180
28.499 -0.368 -2.933 180 180 180
78.674 0.601 8.254 180 180 180
-39.825 -0.921 -5.530 180 180 180
69.504 -0.107 -15.663 180 180 180
19.352 -1.455 -15.608 180 180 180
96.820 -1.684 -5.925 180 180 180
62.942 -1.440 1.939 180 180 180
17.402 -1.928 -7.600 180 180 180
-51.694 -1.687 17.033 180 180 180
-78.833 -0.681 3.777 180 180 180
75.400 1.016 19.783 180 180 180
-7.813 -0.998 -18.353 180 180 180
-68.669 -0.933 5.320 180 180 180
19.405 0.360 -13.749 180 180 180
-51.565 0.578 8.809 180 180 180
-99.028 -1.145 -13.722 180 180 180
85.112 -0.492 -17.664 180 180 180
86.043 -0.850 18.377 180 180 180
-33.966 1.072 -10.727 180 180 180
-25.809 -1.193 -15.956 180 180 180
-97.504 -1.080 16.218 180 180 180
-82.541 -1.758 18.762 180 180 180
-79.956 1.998 -18.708 180 180 180
19.083 -0.011 2.321 180 180 180
37.308 -0.231 12.813 180 180 180
-32.679 1.814 -18.095 180 180 180
-28.818 0.757 1.265 180 180 180
47.344 0.403 -17.488 180 180 180
-62.485 -1.757 -17.251 180 180 180
25.098 1.206 15.738 180 180 180
23.462 -1.793 1.449 180 180 180
-25.583 -0.156 2.623 180 180 180
-24.269 -0.090 11.620 180 180 180
30.352 0.166 12.570 180 180 180
29.991 0.076 3.252 180 180 180
72.637 0.759 13.406 180 180 180
-47.637 0.941 -7.438 180 180 180
-6.694 -1.580 -11.525 180 180 180
-53.704 0.396 13.268 180 180 180
-1.515 0.880 19.025 180 180 180
26.055 -0.553 14.349 180 180 180
8.972 -0.755 10.759 180 180 180
-56.666 0.304 -4.453 180 180 180
-25.539 -0.647 2.352 180 180 180
-54.260 -0.244 1.174 180 180 180
39.153 1.574 19.762 180 180 180
-97.094 1.651 14.416 180 180 180
16.059 -0.992 -6.013 180 180 180
8.314 -0.138 -16.203 180 180 180
-93.911 0.331 3.635 180 180 180
-24.804 0.426 2.473 180 180 180
61.987 0.979 -17.040 180 180 180
-76.237 -1.044 -13.484 180 180 180
28.944 -1.487 12.713 180 180 180
25.662 0.143 2.527 180 180 180
-85.131 -1.617 -0.006 180 180 180
-51.903 0.723 -15.278 180 180 180
3.473 0.833 -1.027 180 180 180
-11.558 -1.679 -16.085 180 180 180
80.060 -1.318 -5.454 180 180 180
-4.380 -0.788 -13.365 180 180 180
97.150 1.521 1.344 180 180 180
-38.345 -0.193 -0.667 180 180 180
-38.585 -0.498 1.118 180 180 180
-40.829 -1.061 -16.636 180 180 180
-51.804 0.201 -14.424 180 180 180
-49.506 -0.640 -10.507 180 180 180
-55.535 0.450 -8.484 180 180 180
60.792 1.290 19.371 180 180 180
16.676 0.991 -1.981 180 180 180
36.108 -0.168 6.699 180 180 180
71.109 -0.981 -13.028 180 180 180
11.592 -0.205 13.367 180 180 180
57.465 -0.839 -8.431 180 180 180
59.534 -1.022 -8.489 180 180 180
-58.907 1.253 1.858 180 180 180
-92.550 -0.950 19.304 180 180 180
8.323 -1.076 -1.808 180 180 180
-34.803 -1.530 8.100 180 180 180
-38.747 0.314 -8.597 180 180 180
67.284 0.407 7.027 180 180 180
72.755 1.337 -3.281 180 180 180
-71.119 1.184 16.750 180 180 180
58.023 1.537 11.274 180 180 180
0.375 -1.486 17.111 180 180 180
-41.371 -1.722 18.366 180 180 180
-24.967 1.583 -7.340 180 180 180
-43.246 -0.922 3.780 180 180 180
-43.079 1.235 7.954 180 180 180
19.613 0.610 -6.243 180 180 180
80.395 -0.879 10.625 180 180 180
-33.403 -0.643 -12.718 180 180 180
-7.887 1.759 14.350 180 180 180
52.957 -1.710 -10.396 180 180 180
8.291 0.066 -0.831 180 180 180
94.340 -1.400 17.864 180 180 180
47.171 -0.705 11.397 180 180 180
96.656 1.617 -0.350 180 180 180
-14.121 -1.651 5.480 180 180 180
-36.768 1.882 -16.370 180 180 180
-17.296 0.711 -4.706 180 180 180
-35.744 1.792 8.475 180 180 180
-68.433 1.614 12.932 180 180 180
-85.747 0.808 9.965 180 180 180
77.441 -1.247 -14.357 180 180 180
0.055 -1.519 3.328 180 180 180
-9.782 -1.727 12.543 180 180 180
70.089 -0.506 -10.842 180 180 180
-15.458 -1.881 2.558 180 180 180
-97.368 -1.585 -13.781 180 180 180
-53.873 -1.641 5.373 180 180 180
81.589 -0.427 -6.165 180 180 180
-80.409 1.846 -4.211 180 180 180
55.319 0.455 -16.474 180 180 180
42.176 -0.559 -15.442 180 180 180
-49.512 -0.959 5.300 180 180 180
-46.868 1.499 2.851 180 180 180
-66.575 1.651 -19.762 180 180 180
-7.095 -0.479 -18.776 180 180 180
-62.412 0.423 -16.406 180 180 180
-57.093 1.429 11.975 180 180 180
70.281 -1.987 2.746 180 180 180
24.881 -1.690 -15.788 180 180 180
-23.925 0.144 -9.424 180 180 180
-86.373 0.226 -1.707 180 180 180
60.536 -0.057 15.722 180 180 180
-55.465 -0.649 -18.697 180 180 180
1.895 0.287 8.460 180 180 180
-52.663 -0.578 9.613 180 180 180
-83.931 -0.556 12.183 180 180 180
-62.261 -1.826 -8.442 180 180 180
-3.544 0.452 3.806 180 180 180
11.512 1.148 4.017 180 180 180
10.603 -0.288 2.737 180 180 180
7.587 -1.929 11.379 180 180 180
61.477 -1.653 -6.167 180 180 180
42.827 -0.399 -2.693 180 180 180
-75.834 -1.415 14.717 180 180 180
57.470 0.598 12.888 180 180 180
-44.190 -0.358 -16.944 180 180 180
66.694 0.478 -11.516 180 180 180
8.412 -1.408 12.793 180 180 180
-30.183 -0.161 17.106 180 180 180
38.921 0.612 4.975 180 180 180
-56.896 -0.356 14.340 180 180 180
87.053 0.844 1.855 180 180 180
-57.930 -1.448 -5.367 180 180 180
-36.047 -1.294 11.945 180 180 180
-78.308 1.628 10.787 180 180 180
44.099 -1.153 3.393 180 180 180
-62.467 0.289 -10.672 180 180 180
-8.352 -0.413 7.158 180 180 180
94.476 0.056 -18.967 180 180 180
-23.416 0.725 -2.401 180 180 180
-24.505 1.519 13.169 180 180 180
-66.559 0.514 4.164 180 180 180
15.043 -0.076 -11.092 180 180 180
-30.836 1.499 -16.113 180 180 180
43.122 1.669 10.695 180 180 180
46.967 1.168 -4.837 180 180 180
-97.507 -1.334 12.053 180 180 180
-39.332 0.903 14.241 180 180 180
75.084 1.841 -11.464 180 180 180
-45.453 1.420 -7.532 180 180 180
-1.537 -1.356 -12.329 180 180 180
-90.023 1.446 -5.430 180 180 180
-52.249 -1.610 -11.859 180 180 180
-49.813 -1.800 -3.383 180 180 180
9.863 -0.317 -8.241 180 180 180
-14.758 -1.353 -10.938 180 180 180
-55.749 1.024 -16.953 180 180 180
91.990 1.577 -14.159 180 180 180
-87.348 -1.514 2.510 180 180 180
10.619 0.262 3.036 180 180 180
-79.929 1.446 -19.298 180 180 180
9.741 1.686 8.498 180 180 180
-77.073 -0.715 -5.184 180 180 180
58.238 -1.912 9.828 180 180 180
18.857 -0.204 6.541 180 180 180
-61.209 0.340 18.100 180 180 180
-68.973 1.175 17.956 180 180 180
0.346 0.755 -19.486 180 180 180
73.005 0.029 -10.037 180 180 180
79.898 -0.601 18.994 180 180 180
23.419 0.023 -16.919 180 180 180
-78.407 -0.639 12.992 180 180 180
-73.149 0.384 19.279 180 180 180
-41.257 -1.579 -4.354 180 180 180
18.450 -1.567 -0.307 180 180 180
-54.100 0.071 16.694 180 180 180
-87.888 0.871 13.375 180 180 180
28.823 1.546 13.986 180 180 180
68.008 1.816 -1.725 180 180 180
-68.117 1.480 11.568 180 180 180
-19.808 0.849 -11.410 180 180 180
86.678 0.429 19.386 180 180 180
-47.680 -0.614 2.701 180 180 180
-19.698 -1.989 9.283 180 180 180
38.572 1.722 9.787 180 180 180
-93.876 -1.813 -0.663 180 180 180
24.064 -0.809 -18.666 180 180 180
61.840 0.363 -1.168 180 180 180
76.919 1.283 -16.520 180 180 180
-41.523 0.745 -6.729 180 180 180
37.318 -0.306 -10.951 180 180 180
-76.914 0.976 11.272 180 180 180
-32.361 1.169 -7.405 180 180 180
67.777 1.051 19.513 180 180 180
98.971 -1.105 -5.522 180 180 180
-85.658 -0.576 14.171 180 180 180
-26.592 -1.724 6.558 180 180 180
-39.075 1.151 10.717 180 180 180
-4.504 1.086 -18.977 180 180 180
37.067 -1.267 12.157 180 180 180
-13.267 1.637 16.158 180 180 180
-64.369 0.683 5.340 180 180 180
0.432 1.229 -4.189 180 180 180
63.588 -1.220 -18.007 180 180 180
-13.870 0.556 7.898 180 180 180
53.659 0.804 2.591 180 180 180
-26.002 0.493 -12.707 180 180 180
-66.213 -1.257 -3.657 180 180 180
21.452 -1.736 4.885 180 180 180
-54.311 0.298 9.999 180 180 180
-26.610 -0.230 -18.852 180 180 180
-96.041 1.834 -13.327 180 180 180
-81.730 -0.622 17.637 180 180 180
-3.934 1.604 0.152 180 180 180
98.906 -1.392 7.876 180 180 180
-80.049 1.094 -11.809 180 180 180
95.876 1.374 -11.588 180 180 180
74.452 0.672 -0.683 180 180 180
-58.747 0.667 -9.531 180 180 180
26.291 1.547 -1.066 180 180 180
-24.138 -1.965 -13.454 180 180 180
-78.845 0.245 -10.223 180 180 180
78.361 -0.721 9.587 180 180 180
62.753 0.763 -14.029 180 180 180
-81.230 -0.313 10.524 180 180 180
-55.400 -0.991 15.244 180 180 180
-59.028 1.369 -0.980 180 180 180
17.576 -1.629 -1.588 180 180 180
-35.431 0.560 15.871 180 180 180
-61.818 0.354 -11.873 180 180 180
-78.211 -0.052 1.085 180 180 180
80.747 1.611 -4.160 180 180 180
-80.898 0.584 18.110 180 180 180
79.380 -0.153 15.887 180 180 180
-14.492 -0.284 3.149 180 180 180
61.815 1.334 9.733 180 180 180
96.534 -1.505 1.792 180 180 180
-97.965 1.304 -18.234 180 180 180
73.400 -0.547 7.011 180 180 180
-9.409 0.114 3.791 180 180 180
-74.778 1.551 -11.379 180 180 180
-35.340 -0.611 -19.961 180 180 180
88.125 0.256 0.700 180 180 180
5.993 1.862 6.065 180 180 180
42.543 1.190 10.411 180 180 180
71.573 -1.308 -16.001 180 180 180
-8.960 1.578 16.161 180 180 180
-25.531 1.874 -18.639 180 180 180
27.195 -1.432 10.494 180 180 180
88.844 -1.550 15.004 180 180 180
6.484 0.281 19.163 180 180 180
-56.303 0.667 16.080 180 180 180
-57.650 -0.713 19.377 180 180 180
-82.955 -0.598 -6.903 180 180 180
-4.385 0.860 17.529 180 180 180
-29.612 -0.158 6.966 180 180 180
90.669 -1.666 6.477 180 180 180
70.904 0.939 2.926 180 180 180
-17.539 -1.518 2.961 180 180 180
-67.935 -0.612 -1.863 180 180 180
50.921 -0.913 15.986 180 180 180
98.981 -1.599 12.092 180 180 180
14.761 1.575 14.415 180 180 180
-81.905 -1.203 1.932 180 180 180
-6.623 0.227 2.492 180 180 180
-2.857 -1.157 2.095 180 180 180
8.585 1.621 -2.289 180 180 180
30.959 -1.037 13.796 180 180 180
73.739 -1.322 11.995 180 180 180
-85.500 0.013 -19.105 180 180 180
60.066 -1.937 0.250 180 180 180
36.810 0.027 -7.526 180 180 180
-10.139 -0.428 17.897 180 180 180
21.140 -1.663 11.593 180 180 180
9.011 0.083 -11.401 180 180 180
-60.918 1.949 -16.060 180 180 180
-42.184 -0.062 7.302 180 180 180
29.175 0.926 -12.722 180 180 180
-42.710 -1.750 -13.323 180 180 180
91.920 0.654 -5.479 180 180 180
89.979 0.826 2.602 180 180 180
62.385 0.373 -6.657 180 180 180
-1.097 0.212 11.440 180 180 180
-24.669 0.281 -10.348 180 180 180
63.088 1.426 8.838 180 180 180
-16.480 -1.291 13.025 180 180 180
-70.031 1.560 8.412 180 180 180
88.808 0.481 -14.199 180 180 180
-98.850 -1.273 -13.935 180 180 180
-91.403 -0.903 -11.244 180 180 180
-29.024 -1.742 5.411 180 180 180
-83.197 -1.548 14.615 180 180 180
-29.695 1.600 -2.979 180 180 180
19.028 -0.284 13.260 180 180 180
-23.100 -1.571 8.172 180 180 180
20.076 -1.379 12.419 180 180 180
79.831 -1.998 15.318 180 180 180
0.451 -0.924 5.482 180 180 180
-44.313 -0.430 15.463 180 180 180
-68.655 -1.737 10.749 180 180 180
-20.072 0.755 7.494 180 180 180
75.168 -0.516 -3.301 180 180 180
67.264 -1.461 -9.380 180 180 180
-68.366 -1.570 -10.148 180 180 180
55.241 -0.661 -19.275 180 180 180
48.254 1.892 19.148 180 180 180
-27.346 -0.294 -1.724 180 180 180
-53.672 -0.226 -13.000 180 180 180
-41.886 1.344 -5.897 180 180 180
19.081 -1.351 15.941 180 180 180
34.305 -0.823 3.200 180 180 180
-69.872 1.158 -3.046 180 180 180
-79.860 1.368 -4.075 180 180 180
86.226 -1.877 9.538 180 180 180
50.913 1.108 12.461 180 180 180
-45.573 -1.605 12.819 180 180 180
84.171 -0.565 -2.570 180 180 180
-84.605 -1.663 -19.307 180 180 180
-23.504 1.435 6.042 180 180 180
-35.172 0.758 -3.996 180 180 180
95.358 -1.624 7.042 180 180 180
-33.598 -0.042 -4.103 180 180 180
-1.095 -1.383 -17.048 180 180 180
59.046 -0.398 -3.887 180 180 180
-59.388 -0.783 11.425 180 180 180
7.461 0.587 -17.114 180 180 180
-73.171 -1.335 1.930 180 180 180
-84.836 1.717 -13.631 180 180 180
-63.470 -0.247 -3.156 180 180 180
-86.939 0.923 -8.467 180 180 180
71.879 -1.519 -12.855 180 180 180
9.570 -0.240 -15.865 180 180 180
-32.237 -0.009 -19.421 180 180 180
20.255 -0.047 17.150 180 180 180
45.093 0.236 3.296 180 180 180
-54.365 0.034 -2.835 180 180 180
-52.233 -1.030 4.398 180 180 180
-19.703 0.221 -18.669 180 180 180
6.277 1.413 8.915 180 180 180
91.284 1.000 -8.101 180 180 180
-94.230 -1.352 6.905 180 180 180
-36.682 -0.811 -18.601 180 180 180
-75.782 -0.864 -2.711 180 180 180
62.531 -1.384 7.774 180 180 180
-29.163 -0.522 -1.801 180 180 180
4.220 -0.134 11.196 180 180 180
82.970 -1.139 -2.430 180 180 180
-61.982 -1.070 -16.488 180 180 180
-69.782 0.493 -14.332 180 180 180
-22.901 -1.561 14.750 180 180 180
-36.671 0.015 9.269 180 180 180
86.113 1.758 3.676 180 180 180
93.463 -0.947 17.296 180 180 180
-91.028 -1.332 18.524 180 180 180
59.195 0.900 6.697 180 180 180
-26.243 -1.050 3.509 180 180 180
-25.252 1.157 13.151 180 180 180
-29.483 1.185 3.892 180 180 180
-28.991 0.671 5.606 180 180 180
84.563 1.173 2.597 180 180 180
52.236 0.950 11.647 180 180 180
94.260 -1.700 16.296 180 180 180
-67.987 0.924 19.052 180 180 180
-87.263 -0.657 -2.524 180 180 180
59.775 -1.245 -4.607 180 180 180
-78.212 1.358 19.330 180 180 180
-23.411 0.953 -8.130 180 180 180
-48.070 1.090 6.366 180 180 180
29.218 1.601 15.354 180 180 180
-24.302 0.373 -0.713 180 180 180
40.953 -1.848 10.258 180 180 180
16.353 0.887 2.956 180 180 180
-22.062 -0.440 -18.288 180 180 180
-50.077 -1.793 -5.168 180 180 180
26.655 1.047 -12.303 180 180 180
67.011 1.614 -17.618 180 180 180
17.766 -1.820 -6.891 180 180 180
14.937 1.855 5.254 180 180 180
44.585 1.285 4.843 180 180 180
-24.774 -1.277 -2.665 180 180 180
87.176 1.592 -6.545 180 180 180
-48.227 0.991 9.681 180 180 180
42.192 1.042 11.851 180 180 180
-79.205 0.898 13.910 180 180 180
-53.505 0.251 -14.726 180 180 180
-58.296 1.245 -17.769 180 180 180
-76.833 -1.340 7.872 180 180 180
-80.655 -1.698 6.599 180 180 180
-43.708 -1.940 10.189 180 180 180
50.382 -1.311 -11.948 180 180 180
-87.452 -1.767 -0.654 180 180 180
-19.188 0.460 -5.371 180 180 180
-32.141 -1.774 17.387 180 180 180
-31.649 0.066 -8.380 180 180 180
-47.629 0.208 10.539 180 180 180
-77.741 1.697 -4.472 180 180 180
-22.218 -0.160 9.888 180 180 180
-23.220 0.137 -17.575 180 180 180
-73.585 -0.214 6.480 180 180 180
17.629 -0.324 -11.982 180 180 180
-81.155 -0.208 -3.451 180 180 180
-32.186 0.402 6.713 180 180 180
-52.455 0.045 16.675 180 180 180
-37.900 -0.149 -0.506 180 180 180
65.911 0.681 15.816 180 180 180
41.375 -1.543 10.197 180 180 180
89.230 1.354 3.727 180 180 180
-99.163 1.695 12.949 180 180 180
21.877 -1.149 -8.924 180 180 180
23.408 -1.410 5.063 180 180 180
50.304 -0.646 -0.175 180 180 180
38.490 -0.399 -11.815 180 180 180
-34.437 1.230 12.563 180 180 180
-22.128 -1.544 -4.904 180 180 180
79.880 1.443 -3.151 180 180 180
55.547 1.705 13.617 180 180 180
25.409 -0.650 -0.151 180 180 180
9.406 -1.399 7.047 180 180 180
-62.500 0.377 0.022 180 180 180
93.832 1.642 -6.357 180 180 180
-44.802 -0.179 -12.966 180 180 180
89.929 -1.579 -5.503 180 180 180
54.626 1.585 -12.916 180 180 180
-43.138 1.031 9.301 180 180 180
-24.590 0.236 0.415 180 180 180
59.411 0.319 10.049 180 180 180
-46.760 0.784 15.504 180 180 180
93.024 1.182 8.433 180 180 180
-74.370 0.129 -6.099 180 180 180
87.755 -0.959 -17.598 180 180 180
82.709 -1.158 -11.646 180 180 180
-70.584 -0.709 4.004 180 180 180
-59.237 1.014 -15.631 180 180 180
-14.459 0.887 6.116 180 180 180
0.190 -0.800 -7.241 180 180 180
87.127 0.490 5.675 180 180 180
58.562 -1.843 -17.763 180 180 180
-76.981 -0.539 14.464 180 180 180
99.095 -0.768 10.895 180 180 180
-38.695 1.083 2.908 180 180 180
26.295 -0.796 -11.477 180 180 180
-8.441 -0.990 1.526 180 180 180
-36.068 -0.126 11.922 180 180 180
46.308 -1.158 14.688 180 180 180
68.974 0.492 -17.304 180 180 180
28.636 0.020 -17.700 180 180 180
2.978 -0.093 -8.042 180 180 180
95.029 -0.507 -5.800 180 180 180
17.904 1.560 13.177 180 180 180
10.815 1.727 19.275 180 180 180
78.852 -1.461 19.550 180 180 180
33.515 -1.824 -17.455 180 180 180
37.406 1.254 11.486 180 180 180
-19.390 0.695 -2.352 180 180 180
39.472 -0.271 -5.645 180 180 180
67.990 0.559 -8.830 180 180 180
85.995 0.901 -6.373 180 180 180
-84.756 -0.231 -8.601 180 180 180
-29.237 -0.765 -3.742 180 180 180
55.848 -0.411 -1.554 180 180 180
93.513 -1.971 -2.006 180 180 180
-84.361 1.582 -16.535 180 180 180
-10.949 1.552 0.696 180 180 180
29.398 0.781 -10.984 180 180 180
18.346 -0.317 -3.213 180 180 180
-84.880 1.153 -11.407 180 180 180
-55.754 1.845 2.159 180 180 180
10.087 -1.199 -19.990 180 180 180
-5.285 0.280 -8.262 180 180 180
47.091 0.342 -2.930 180 180 180
68.230 -0.564 -10.888 180 180 180
41.248 -1.249 14.344 180 180 180
-40.465 -1.883 6.915 180 180 180
-93.697 1.229 -14.450 180 180 180
81.096 1.658 -19.101 180 180 180
37.362 0.411 -15.963 180 180 180
-98.083 1.174 -12.433 180 180 180
-40.447 0.478 2.412 180 180 180
9.163 1.958 2.649 180 180 180
-0.097 0.717 -6.659 180 180 180
-62.013 0.608 2.981 180 180 180
43.072 0.702 7.636 180 180 180
59.073 0.016 -7.704 180 180 180
27.502 -0.529 -1.903 180 180 180
-11.235 -1.171 -18.610 180 180 180
-72.107 -1.802 8.881 180 180 180
1.786 -1.307 1.901 180 180 180
-83.129 0.280 11.091 180 180 180
24.462 0.142 -13.167 180 180 180
-82.035 -0.755 5.787 180 180 180
4.814 0.165 0.908 180 180 180
70.008 -0.682 19.411 180 180 180
45.784 0.122 -13.326 180 180 180
-33.955 -1.494 -19.690 180 180 180
28.755 -0.293 0.701 180 180 180
42.163 -1.579 14.214 180 180 180
60.669 -0.001 -13.417 180 180 180
-85.927 -1.820 2.739 180 180 180
9.146 -0.021 8.955 180 180 180
82.390 0.712 -17.818 180 180 180
40.634 -0.860 -18.140 180 180 180
-26.156 1.875 -8.372 180 180 180
93.827 -1.008 -5.351 180 180 180
-58.289 -1.047 7.647 180 180 180
-71.721 -0.517 -9.889 180 180 180
-21.988 0.449 -5.588 180 180 180
60.731 -1.841 -9.091 180 180 180
-34.957 1.296 11.113 180 180 180
-34.795 -1.510 -7.628 180 180 180
59.746 -0.954 -13.528 180 180 180
9.531 1.597 12.737 180 180 180
84.066 -1.295 -12.897 180 180 180
74.584 -1.280 8.001 180 180 180
87.226 -0.820 -11.617 180 180 180
12.630 -1.644 -10.605 180 180 180
63.680 0.972 19.608 180 180 180
-26.169 0.496 -0.820 180 180 180
-46.571 -0.472 -14.837 180 180 180
48.804 -0.077 -10.079 180 180 180
98.073 -1.711 19.673 180 180 180
94.409 1.903 -2.667 180 180 180
39.299 -0.857 -4.155 180 180 180
-98.073 -0.507 17.249 180 180 180
28.913 0.987 -0.545 180 180 180
64.405 1.187 15.667 180 180 180
70.046 -1.133 -11.332 180 180 180
17.705 0.593 12.946 180 180 180
-12.922 1.205 3.048 180 180 180
-76.315 -0.473 -10.965 180 180 180
-1.877 1.030 -8.043 180 180 180
35.530 -0.968 -12.438 180 180 180
77.404 -1.147 -10.186 180 180 180
-61.939 1.698 -4.601 180 180 180
-72.048 -1.718 2.235 180 180 180
19.722 0.802 18.793 180 180 180
-55.641 -1.105 4.054 180 180 180
51.904 0.503 -19.918 180 180 180
-10.316 1.559 -14.811 180 180 180
63.145 0.193 0.866 180 180 180
-21.082 0.067 -10.681 180 180 180
-9.312 0.979 -7.827 180 180 180
8.408 -0.422 -11.776 180 180 180
7.470 0.712 5.723 180 180 180
36.502 0.702 -13.829 180 180 180
53.215 -0.730 -12.475 180 180 180
32.392 -1.252 -10.897 180 180 180
37.423 -0.366 0.401 180 180 180
-85.133 -0.302 -14.541 180 180 180
36.991 0.809 1.991 180 180 180
59.401 -0.209 -7.159 180 180 180
-48.386 1.961 13.658 180 180 180
42.115 -1.200 -11.643 180 180 180
87.857 -1.539 10.982 180 180 180
-77.925 1.288 -19.501 180 180 180
36.527 1.699 13.881 180 180 180
-41.310 -1.364 -6.280 180 180 180
99.310 1.778 -2.733 180 180 180
27.743 0.953 -18.504 180 180 180
98.507 0.782 10.087 180 180 180
-22.394 -1.889 15.414 180 180 180
0.839 1.468 14.397 180 180 180
-11.185 0.855 -4.679 180 180 180
-92.436 -0.559 10.232 180 180 180
70.810 -0.611 -4.150 180 180 180
86.610 -0.947 13.870 180 180 180
-51.645 1.962 -19.580 180 180 180
92.187 -1.727 -9.479 180 180 180
17.439 1.328 -5.414 180 180 180
6.861 0.480 -17.092 180 180 180
51.183 -1.563 -12.578 180 180 180
-79.306 1.160 -5.325 180 180 180
-82.392 -1.983 -18.591 180 180 180
25.772 -0.762 -17.354 180 180 180
-18.567 -0.502 3.492 180 180 180
-48.808 -1.873 4.192 180 180 180
20.165 0.056 -17.627 180 180 180
78.462 -0.464 11.118 180 180 180
18.728 -1.640 -4.401 180 180 180
3.248 1.215 -15.957 180 180 180
-13.099 0.846 8.766 180 180 180
70.600 -1.411 -17.782 180 180 180
64.534 -0.606 -10.680 180 180 180
0.404 -0.811 -13.422 180 180 180
15.080 -0.121 -3.604 180 180 180
71.037 -0.583 8.094 180 180 180
-9.153 -1.302 -6.509 180 180 180
37.106 -1.460 -3.495 180 180 180
41.966 -1.674 -3.278 180 180 180
54.770 0.525 7.766 180 180 180
42.792 -1.993 -19.614 180 180 180
57.180 1.950 -18.227 180 180 180
4.161 1.168 -8.653 180 180 180
65.333 -1.554 5.133 180 180 180
-54.415 -1.726 15.199 180 180 180
-39.763 0.997 1.626 180 180 180
-36.603 -1.549 -12.781 180 180 180
35.369 1.488 -12.582 180 180 180
-55.300 -1.775 14.417 180 180 180
-13.758 -0.455 -13.722 180 180 180
-16.169 -1.838 -15.016 180 180 180
-75.628 -0.802 2.980 180 180 180
-52.646 0.767 5.184 180 180 180
-64.507 -1.293 -6.933 180 180 180
-45.583 -0.383 -10.956 180 180 180
59.615 0.127 9.322 180 180 180
54.419 1.897 3.685 180 180 180
20.439 1.723 0.604 180 180 180
-6.750 1.833 -12.708 180 180 180
-84.035 -1.182 12.879 180 180 180
-68.923 1.811 5.249 180 180 180
-31.247 1.858 11.331 180 180 180
70.984 -1.161 -8.484 180 180 180
-22.709 -0.671 -17.188 180 180 180
-3.150 1.926 19.196 180 180 180
94.890 0.906 2.858 180 180 180
-6.884 -0.233 14.400 180 180 180
51.215 0.042 -2.309 180 180 180
52.808 -0.225 5.838 180 180 180
-40.852 -0.721 16.622 180 180 180
80.528 -0.951 2.404 180 180 180
-92.602 1.240 15.155 180 180 180
20.192 1.962 1.812 180 180 180
-62.576 -0.844 -4.073 180 180 180
39.173 0.648 0.096 180 180 180
-15.765 0.271 9.206 180 180 180
38.354 -0.973 -3.576 180 180 180
-63.274 -1.996 -8.358 180 180 180
-95.472 0.353 15.839 180 180 180
-80.871 0.485 4.627 180 180 180
22.069 0.296 -16.248 180 180 180
39.899 0.318 -10.568 180 180 180
93.693 0.485 -14.356 180 180 180
95.018 -1.910 4.507 180 180 180
55.934 0.268 -0.470 180 180 180
78.255 -1.605 11.134 180 180 180
-44.965 -0.449 -8.804 180 180 180
31.095 -1.816 -16.223 180 180 180
80.835 1.879 -0.396 180 180 180
48.254 0.429 17.665 180 180 180
-80.040 -0.810 -3.160 180 180 180
88.410 0.369 4.842 180 180 180
65.614 -0.348 10.169 180 180 180
81.659 0.368 5.725 180 180 180
58.093 -1.905 -8.837 180 180 180
-46.847 -0.839 -16.789 180 180 180
-51.857 -1.899 12.764 180 180 180
-90.730 -0.781 0.790 180 180 180
87.977 -0.623 -11.194 180 180 180
-3.064 1.328 -0.287 180 180 180
-63.151 -1.597 -19.863 180 180 180
99.666 -1.870 6.417 180 180 180
72.511 1.261 -18.153 180 180 180
-44.198 -1.361 16.640 180 180 180
23.390 1.308 -19.998 180 180 180
-38.478 1.714 5.410 180 180 180
-28.598 -0.038 -15.235 180 180 180
26.984 1.228 -17.333 180 180 180
-63.824 1.010 16.895 180 180 180
-90.590 -1.554 0.663 180 180 180
47.405 0.219 -17.240 180 180 180
-13.765 -0.722 -16.623 180 180 180
89.541 0.951 17.927 180 180 180
64.524 -0.124 -0.852 180 180 180
58.838 1.442 7.422 180 180 180
-83.170 -0.413 -5.711 180 180 180
-41.923 0.774 3.013 180 180 180
-52.435 -1.916 -0.699 180 180 180
-50.457 0.934 3.195 180 180 180
57.982 -0.758 7.879 180 180 180
87.792 -0.616 15.990 180 180 180
34.249 -1.783 5.501 180 180 180
-33.692 -1.930 2.765 180 180 180
3.075 1.401 -4.156 180 180 180
-28.215 -1.917 2.938 180 180 180
-44.922 0.560 -13.853 180 180 180
34.359 -0.779 -2.615 180 180 180
98.830 -0.821 15.969 180 180 180
-97.497 1.788 -5.055 180 180 180
98.456 0.880 15.088 180 180 180
-8.495 -1.247 -8.452 180 180 180
9.886 -1.070 10.921 180 180 180
-3.689 0.260 10.706 180 180 180
86.912 1.047 -19.836 180 180 180
22.635 0.406 -0.257 180 180 180
96.239 1.667 -4.308 180 180 180
67.013 0.040 9.812 180 180 180
-18.605 1.910 -8.027 180 180 180
-87.068 -0.679 -4.045 180 180 180
8.939 -1.271 -10.990 180 180 180
57.001 -1.773 18.882 180 180 180
-58.089 -0.426 -16.021 180 180 180
-27.925 -1.804 -12.515 180 180 180
-5.476 -0.246 -18.407 180 180 180
-25.246 0.981 8.251 180 180 180
72.845 -0.741 10.131 180 180 180
29.535 0.223 -15.685 180 180 180
-30.802 -1.946 -11.265 180 180 180
25.332 1.531 14.906 180 180 180
-62.164 -1.472 -0.864 180 180 180
64.469 -1.008 12.369 180 180 180
-65.807 1.992 -2.589 180 180 180
-7.673 -0.774 11.769 180 180 180
-47.404 -0.403 -5.325 180 180 180
76.053 1.755 -13.173 180 180 180
12.364 -0.771 -14.895 180 180 180
58.134 -0.599 -6.565 180 180 180
-26.303 -0.246 3.771 180 180 180
32.100 1.985 2.652 180 180 180
-6.779 1.330 5.699 180 180 180
-17.456 0.362 -18.177 180 180 180
-83.780 -1.906 7.562 180 180 180
-74.974 1.743 -16.781 180 180 180
94.342 1.259 -16.175 180 180 180
-51.121 1.646 3.790 180 180 180
33.492 -1.544 9.632 180 180 180
-52.298 0.777 -18.207 180 180 180
68.862 0.453 19.675 180 180 180
-60.947 -1.821 13.495 180 180 180
-43.407 0.931 -1.980 180 180 180
-65.445 -0.972 -14.956 180 180 180
19.814 1.419 -18.043 180 180 180
58.512 0.600 19.355 180 180 180
61.337 -1.647 -10.408 180 180 180
-23.925 -1.763 -19.505 180 180 180
72.394 -0.520 12.986 180 180 180
40.845 -1.767 3.057 180 180 180
-31.680 0.426 17.330 180 180 180
-46.429 -0.347 -10.932 180 180 180
8.348 1.077 -10.293 180 180 180
56.212 0.647 -5.900 180 180 180
-91.913 1.134 14.413 180 180 180
-96.816 0.576 -2.204 180 180 180
-24.407 -0.634 -19.512 180 180 180
34.506 -0.604 1.748 180 180 180
-29.630 -1.904 13.089 180 180 180
96.585 -1.463 -8.966 180 180 180
-91.765 0.906 9.367 180 180 180
98.420 1.541 8.559 180 180 180
1.224 0.126 -13.236 180 180 180
76.491 0.909 -9.127 180 180 180
3.659 -0.376 -18.122 180 180 180
-53.486 1.860 4.733 180 180 180
36.907 1.910 4.464 180 180 180
-4.524 -1.438 -17.623 180 180 180
-20.260 -0.402 15.672 180 180 180
95.653 1.644 10.125 180 180 180
-50.843 0.365 19.504 180 180 180
18.136 -1.185 -11.291 180 180 180
45.290 0.801 -4.676 180 180 180
-80.943 0.397 -5.383 180 180 180
15.175 -1.139 10.147 180 180 180
84.142 -1.805 -3.549 180 180 180
17.462 0.018 -4.413 180 180 180
31.305 -1.459 0.807 180 180 180
-61.128 -1.992 0.319 180 180 180
-69.910 -1.024 13.622 180 180 180
93.129 1.212 -7.035 180 180 180
82.270 -1.620 -10.710 180 180 180
74.506 1.191 -11.277 180 180 180
32.009 -0.707 15.417 180 180 180
79.870 -1.699 -1.365 180 180 180
-30.436 1.810 9.842 180 180 180
-12.621 0.783 17.836 180 180 180
-1.735 1.719 -2.036 180 180 180
-8.085 -0.113 16.954 180 180 180
70.662 1.992 -14.668 180 180 180
63.662 -1.232 11.157 180 180 180
63.310 0.159 2.083 180 180 180
13.660 -0.331 6.519 180 180 180
10.548 -0.159 -1.638 180 180 180
-67.732 0.700 12.242 180 180 180
-47.489 -0.560 8.833 180 180 180
-32.767 0.655 -19.356 180 180 180
-57.685 -1.672 -15.915 180 180 180
36.388 -0.696 -10.943 180 180 180
-28.644 -1.851 -0.423 180 180 180
-38.797 0.465 0.433 180 180 180
78.842 -1.145 6.898 180 180 180
-26.423 0.288 -17.079 180 180 180
52.234 1.996 -17.015 180 180 180
-33.437 0.999 19.100 180 180 180
49.906 -1.946 16.796 180 180 180
-92.338 -1.080 -14.215 180 180 180
65.103 1.944 14.549 180 180 180
90.998 1.519 -18.643 180 180 180
-15.964 1.020 -0.967 180 180 180
42.112 1.697 -10.381 180 180 180
40.557 0.476 3.139 180 180 180
18.504 1.343 -9.467 180 180 180
81.931 1.673 19.761 180 180 180
-37.286 -0.687 -1.455 180 180 180
-4.236 0.391 -7.285 180 180 180
94.886 -0.238 10.377 180 180 180
-24.543 -0.857 -18.300 180 180 180
52.811 1.993 18.992 180 180 180
-72.844 0.593 -11.362 180 180 180
24.567 0.127 19.958 180 180 180
28.074 0.924 -7.809 180 180 180
-59.372 -1.505 -14.121 180 180 180
9.091 -1.664 -19.462 180 180 180
-9.442 1.821 4.105 180 180 180
33.819 -1.202 16.641 180 180 180
64.397 0.346 -17.461 180 180 180
79.059 1.583 -18.505 180 180 180
67.469 -1.577 -18.713 180 180 180
-28.509 -1.225 -3.776 180 180 180
-53.089 -0.261 8.600 180 180 180
20.039 0.173 17.276 180 180 180
-52.346 -0.573 12.782 180 180 180
22.997 -1.278 10.055 180 180 180
42.876 -1.238 -17.289 180 180 180
-89.806 0.712 2.708 180 180 180
32.319 -0.548 11.597 180 180 180
25.695 -1.170 -7.249 180 180 180
78.079 -0.373 -0.676 180 180 180
70.874 -0.670 -6.905 180 180 180
66.317 -1.625 4.036 180 180 180
-9.201 -0.484 7.698 180 180 180
5.824 -0.059 6.437 180 180 180
34.075 -0.134 -15.004 180 180 180
23.989 -0.005 -1.101 180 180 180
26.055 1.764 13.383 180 180 180
87.382 -0.183 16.441 180 180 180
73.973 -1.142 -7.276 180 180 180
-30.489 0.598 -0.070 180 180 180
-80.185 0.953 -3.243 180 180 180
-59.155 0.462 3.725 180 180 180
74.762 -1.527 -13.814 180 180 180
36.576 1.733 -14.082 180 180 180
-97.854 -0.883 -18.813 180 180 180
-14.705 -1.033 -5.012 180 180 180
-72.200 0.921 -9.195 180 180 180
35.800 -0.718 -10.828 180 180 180
11.603 -1.966 -16.962 180 180 180
-3.151 1.867 -5.216 180 180 180
-62.851 0.062 12.366 180 180 180
24.269 -1.824 12.831 180 180 180
-39.635 -1.906 17.487 180 180 180
9.116 -1.491 -14.549 180 180 180
34.491 1.317 2.177 180 180 180
-36.777 -1.046 -15.021 180 180 180
-58.081 1.973 5.750 180 180 180
-72.315 0.536 16.636 180 180 180
60.673 -1.654 19.191 180 180 180
-88.902 -1.418 -5.007 180 180 180
95.491 1.950 4.077 180 180 180
62.877 1.909 6.317 180 180 180
37.768 0.002 17.988 180 180 180
-95.089 0.466 14.408 180 180 180
-21.351 0.424 11.705 180 180 180
-87.717 0.119 3.387 180 180 180
-69.632 -1.892 13.499 180 180 180
-26.341 1.652 1.410 180 180 180
78.414 0.969 -3.098 180 180 180
-75.273 1.379 11.153 180 180 180
-35.990 0.543 -3.232 180 180 180
-17.616 0.810 -10.415 180 180 180
65.211 -1.931 -1.457 180 180 180
69.949 -0.048 13.083 180 180 180
28.864 -1.896 17.635 180 180 180
67.815 -0.900 -1.178 180 180 180
65.551 -1.594 -11.036 180 180 180
90.217 -1.333 -9.346 180 180 180
-38.830 1.058 -16.979 180 180 180
-36.699 0.263 -2.371 180 180 180
89.669 0.021 10.067 180 180 180
-87.602 -0.680 12.903 180 180 180
54.263 -1.759 -16.820 180 180 180
58.388 -0.411 1.499 180 180 180
-77.658 1.022 -2.591 180 180 180
-91.296 -0.342 9.327 180 180 180
-49.162 -0.457 -4.331 180 180 180
-17.056 0.722 1.792 180 180 180
-80.240 0.572 -1.805 180 180 180
62.342 -1.572 -6.305 180 180 180
-51.417 1.365 16.906 180 180 180
41.022 -1.338 15.630 180 180 180
-28.224 -0.772 10.890 180 180 180
29.161 0.177 16.767 180 180 180
20.277 1.464 9.122 180 180 180
95.979 -1.359 18.136 180 180 180
-96.182 0.112 3.003 180 180 180
-24.316 1.491 -6.339 180 180 180
-47.739 0.403 -7.092 180 180 180
-98.644 0.462 -11.067 180 180 180
-15.411 -1.457 12.930 180 180 180
-8.400 -0.214 1.924 180 180 180
-35.266 0.397 -7.548 180 180 180
58.949 0.573 -4.012 180 180 180
-59.763 -0.477 18.425 180 180 180
-9.516 0.761 17.436 180 180 180
-22.538 -0.246 -9.143 180 180 180
96.176 1.318 8.730 180 180 180
-66.938 -1.449 17.663 180 180 180
-61.432 1.243 -19.471 180 180 180
4.042 -0.968 12.548 180 180 180
-11.369 -0.040 -3.547 180 180 180
17.172 1.594 -1.997 180 180 180
-70.223 1.277 -4.201 180 180 180
84.891 0.071 -8.797 180 180 180
11.165 1.239 12.818 180 180 180
-58.312 0.062 9.329 180 180 180
-97.026 -0.948 16.130 180 180 180
-58.893 -1.899 3.109 180 180 180
45.434 -0.664 11.419 180 180 180
-21.417 -1.269 15.846 180 180 180
-49.195 -0.458 18.258 180 180 180
88.360 -1.793 3.449 180 180 180
-4.681 -1.422 17.422 180 180 180
-73.851 -1.925 -12.678 180 180 180
13.586 1.218 3.805 180 180 180
-51.307 0.112 1.102 180 180 180
73.815 -1.990 -19.669 180 180 180
37.804 0.164 2.306 180 180 180
59.939 -1.925 7.278 180 180 180
43.620 0.613 -15.565 180 180 180
-87.947 -1.810 13.371 180 180 180
-20.691 -0.908 -10.996 180 180 180
53.843 -0.298 17.357 180 180 180
-85.157 0.006 -8.392 180 180 180
52.466 1.170 0.323 180 180 180
-77.576 -0.014 12.548 180 180 180
45.337 -0.248 -10.494 180 180 180
16.300 0.511 -4.468 180 180 180
-15.805 -1.997 11.602 180 180 180
-51.743 1.184 -14.623 180 180 180
-2.361 -0.164 9.784 180 180 180
19.443 -0.039 -10.112 180 180 180
-1.806 -0.585 -0.500 180 180 180
98.816 1.152 -0.214 180 180 180
-72.588 1.214 15.585 180 180 180
-50.498 -0.675 -4.835 180 180 180
49.031 1.118 -12.606 180 180 180
44.785 0.172 -19.008 180 180 180
-43.785 -1.833 -8.296 180 180 180
16.093 -0.728 15.459 180 180 180
-63.404 -0.515 -19.548 180 180 180
-6.954 1.100 3.179 180 180 180
-33.770 -1.298 -15.682 180 180 180
67.969 1.915 4.814 180 180 180
30.498 -0.461 8.121 180 180 180
-24.427 -0.711 8.617 180 180 180
-78.968 -0.974 5.517 180 180 180
27.778 -1.503 -4.485 180 180 180
-15.026 -1.414 13.689 180 180 180
-5.453 0.770 -19.356 180 180 180
64.369 1.235 -2.759 180 180 180
52.562 -0.264 12.446 180 180 180
63.849 -0.542 13.441 180 180 180
-65.340 0.721 -3.827 180 180 180
49.608 -1.402 7.912 180 180 180
-61.578 1.185 17.849 180 180 180
37.981 0.339 11.881 180 180 180
-79.669 -1.897 -9.799 180 180 180
4.024 0.007 -13.802 180 180 180
-21.304 1.532 -4.149 180 180 180
88.090 1.547 -2.682 180 180 180
69.445 -0.054 -8.108 180 180 180
27.857 -0.660 -10.812 180 180 180
-16.753 -1.962 3.647 180 180 180
12.858 -1.790 4.815 180 180 180
22.446 1.915 11.234 180 180 180
-66.650 1.404 0.575 180 180 180
34.732 -0.484 -16.705 180 180 180
67.992 -0.837 -12.484 180 180 180
53.703 0.459 13.495 180 180 180
8.049 -1.499 -13.774 180 180 180
28.792 0.098 19.088 180 180 180
26.347 -0.701 2.581 180 180 180
-82.771 -0.509 -6.829 180 180 180
68.441 -1.903 3.000 180 180 180
35.720 -0.010 12.525 180 180 180
12.901 -1.840 2.169 180 180 180
7.285 -0.014 10.264 180 180 180
-14.234 -1.903 2.468 180 180 180
-40.390 0.862 -11.182 180 180 180
-11.206 0.810 -1.683 180 180 180
-40.930 0.227 2.550 180 180 180
-1.496 -1.107 -0.406 180 180 180
67.651 -0.963 8.104 180 180 180
-63.401 1.493 -3.544 180 180 180
-37.046 1.290 15.426 180 180 180
63.611 -1.648 0.897 180 180 180
66.441 1.093 -19.987 180 180 180
-83.218 0.070 -10.880 180 180 180
-60.155 0.171 18.656 180 180 180
12.522 -1.982 -8.958 180 180 180
72.180 1.386 8.185 180 180 180
77.905 0.096 -8.236 180 180 180
-43.443 1.665 -5.158 180 180 180
7.268 0.433 -15.876 180 180 180
-47.032 -1.088 -15.649 180 180 180
36.404 -0.570 -1.317 180 180 180
2.075 -1.944 -10.636 180 180 180
72.424 -0.318 -12.458 180 180 180
48.896 -1.662 0.767 180 180 180
-35.694 0.743 10.580 180 180 180
-89.917 1.973 8.605 180 180 180
59.819 0.355 16.503 180 180 180
79.669 -0.850 19.737 180 180 180
41.807 0.647 1.419 180 180 180
47.268 0.805 -0.334 180 180 180
89.565 -0.256 12.027 180 180 180
-25.895 -0.260 -16.865 180 180 180
-53.081 -1.457 -8.796 180 180 180
61.821 -1.578 -14.332 180 180 180
29.267 -0.965 -18.819 180 180 180
99.992 0.049 -17.499 180 180 180
59.597 -0.294 15.244 180 180 180
32.742 1.165 -2.309 180 180 180
-20.191 0.165 8.782 180 180 180
19.276 -1.565 -6.176 180 180 180
10.469 -0.124 -5.756 180 180 180
33.527 0.224 -10.364 180 180 180
17.952 -1.917 -3.422 180 180 180
-77.549 1.674 -6.843 180 180 180
46.778 -0.743 13.566 180 180 180
-53.274 -1.506 -2.853 180 180 180
49.496 0.656 -5.927 180 180 180
-88.490 0.693 -14.957 180 180 180
-28.680 0.571 -4.643 180 180 180
19.464 0.155 5.986 180 180 180
-33.185 -0.955 18.288 180 180 180
-5.090 0.234 -12.732 180 180 180
73.335 -1.787 19.711 180 180 180
-89.783 0.171 -11.363 180 180 180
-40.390 1.442 8.181 180 180 180
-96.401 1.727 7.095 180 180 180
7.789 -1.669 6.321 180 180 180
38.896 -0.678 -2.468 180 180 180
88.358 -0.735 -16.333 180 180 180
-89.249 0.785 -0.810 180 180 180
-57.722 -1.357 -14.123 180 180 180
-92.585 -1.126 -19.732 180 180 180
-94.127 1.391 12.812 180 180 180
-14.192 -1.567 -12.975 180 180 180
-23.463 -0.269 -2.048 180 180 180
39.254 -0.906 2.446 180 180 180
31.051 1.112 6.333 180 180 180
3.993 0.337 -4.434 180 180 180
-41.971 -1.138 -6.824 180 180 180
93.451 1.613 2.895 180 180 180
-41.933 0.677 14.252 180 180 180
36.871 0.930 -6.806 180 180 180
-96.381 -1.396 -4.466 180 180 180
21.722 -0.079 1.068 180 180 180
-28.146 1.776 -0.174 180 180 180
-65.776 0.337 11.578 180 180 180
-57.158 0.830 -1.183 180 180 180
93.891 0.557 -18.502 180 180 180
-70.374 0.530 14.689 180 180 180
19.648 -0.183 14.191 180 180 180
-83.577 1.207 10.557 180 180 180
75.721 -1.692 -11.925 180 180 180
-70.800 -0.577 11.284 180 180 180
-66.379 -0.366 -5.295 180 180 180
-71.862 -0.014 13.051 180 180 180
63.701 -1.461 -5.137 180 180 180
-40.087 0.101 -12.960 180 180 180
59.242 0.656 4.267 180 180 180
-97.356 0.742 6.395 180 180 180
-71.083 1.907 12.415 180 180 180
-48.725 0.110 0.408 180 180 180
-36.237 -1.244 -18.618 180 180 180
94.645 0.566 17.578 180 180 180
-84.524 -0.818 -4.964 180 180 180
26.393 -1.011 12.348 180 180 180
-82.269 -1.886 17.794 180 180 180
67.049 0.917 17.004 180 180 180
-18.863 -1.784 8.830 180 180 180
84.749 1.272 18.288 180 180 180
74.333 -0.666 18.426 180 180 180
57.267 0.226 3.271 180 180 180
-29.073 -0.323 -6.813 180 180 180
17.052 -1.472 15.603 180 180 180
-40.267 1.412 16.713 180 180 180
67.699 -1.317 -15.972 180 180 180
-57.472 0.132 6.797 180 180 180
79.119 -0.759 17.180 180 180 180
28.662 1.708 -6.020 180 180 180
-54.658 -1.577 -4.597 180 180 180
-71.759 -0.661 8.175 180 180 180
44.300 -1.803 5.406 180 180 180
4.928 -0.399 17.854 180 180 180
-25.187 -1.986 -2.613 180 180 180
92.205 -1.767 18.222 180 180 180
-96.786 -1.922 15.658 180 180 180
-77.938 0.111 9.979 180 180 180
88.744 -0.445 -10.878 180 180 180
26.207 -0.865 -1.484 180 180 180
2.750 -1.862 12.263 180 180 180
-48.889 0.794 17.531 180 180 180
-51.147 -1.788 7.010 180 180 180
73.775 -0.626 3.828 180 180 180
52.701 1.011 1.399 180 180 180
88.696 1.000 -11.844 180 180 180
69.305 -0.085 2.684 180 180 180
-8.164 -0.040 -12.001 180 180 180
48.209 0.891 2.536 180 180 180
-96.846 0.064 10.069 180 180 180
-57.214 0.443 6.485 180 180 180
-74.777 0.419 -11.406 180 180 180
-90.875 -1.479 -9.047 180 180 180
73.092 -0.205 10.616 180 180 180
-31.124 -0.861 -15.321 180 180 180
72.094 0.464 -12.167 180 180 180
-42.629 -0.984 1.733 180 180 180
-48.345 1.614 -6.414 180 180 180
-9.972 0.545 -7.556 180 180 180
35.574 1.132 -9.314 180 180 180
97.758 -0.120 2.093 180 180 180
-94.099 1.037 11.892 180 180 180
52.214 1.047 6.161 180 180 180
19.482 -0.478 -15.657 180 180 180
4.589 -1.409 -2.621 180 180 180
-16.185 1.845 16.810 180 180 180
82.338 1.478 12.357 180 180 180
85.293 -1.334 0.297 180 180 180
42.646 0.833 18.644 180 180 180
29.064 0.507 -7.684 180 180 180
58.198 -1.961 -19.447 180 180 180
32.825 -1.089 -13.839 180 180 180
-4.229 -1.953 -9.602 180 180 180
-70.410 -0.976 -0.150 180 180 180
-96.314 0.227 8.766 180 180 180
-42.194 0.615 13.251 180 180 180
-65.616 0.827 6.147 180 180 180
30.972 -1.234 9.896 180 180 180
4.769 1.607 -5.146 180 180 180
-15.048 0.287 2.809 180 180 180
95.263 0.643 -14.338 180 180 180
-50.378 -0.787 -12.254 180 180 180
-56.056 -0.579 -16.229 180 180 180
97.279 -0.003 0.635 180 180 180
-1.595 -0.963 16.342 180 180 180
52.387 -0.594 8.135 180 180 180
-2.482 1.343 -3.887 180 180 180
2.339 -0.361 19.851 180 180 180
-20.658 -1.660 13.304 180 180 180
35.275 1.950 -7.679 180 180 180
5.768 -0.666 -13.686 180 180 180
61.563 1.256 2.434 180 180 180
71.326 -0.426 6.409 180 180 180
63.856 1.375 7.677 180 180 180
15.073 -0.804 -1.262 180 180 180
-36.603 -1.481 3.115 180 180 180
-19.182 0.880 0.500 180 180 180
-60.061 -1.331 3.090 180 180 180
76.752 -1.718 19.021 180 180 180
-64.133 -1.519 -8.989 180 180 180
-92.189 -1.961 19.715 180 180 180
33.670 1.074 16.487 180 180 180
74.836 -0.440 -1.388 180 180 180
59.534 -0.181 17.438 180 180 180
-71.623 -1.139 -6.230 180 180 180
-33.166 0.077 -11.068 180 180 180
-62.871 -1.253 1.624 180 180 180
47.069 -1.081 -8.852 180 180 180
-64.509 -0.713 -16.166 180 180 180
-61.278 -0.843 2.643 180 180 180
-84.150 -0.038 18.524 180 180 180
-84.894 -0.383 -1.013 180 180 180
-19.958 0.392 1.843 180 180 180
-82.093 -1.948 7.718 180 180 180
25.346 -0.154 -15.963 180 180 180
-93.493 -1.894 -7.570 180 180 180
-64.390 0.903 3.436 180 180 180
11.944 1.998 12.116 180 180 180
37.601 -0.037 -4.142 180 180 180
92.073 1.824 -15.262 180 180 180
11.788 -1.693 18.043 180 180 180
-61.731 1.281 3.600 180 180 180
-1.716 -0.036 0.802 180 180 180
49.214 -0.533 -10.530 180 180 180
-96.851 -0.590 18.749 180 180 180
-41.690 0.344 3.686 180 180 180
98.399 0.329 -10.939 180 180 180
83.714 0.039 11.937 180 180 180
-46.879 -0.855 15.823 180 180 180
-60.839 0.485 -1.223 180 180 180
-44.752 -0.343 -2.267 180 180 180
38.154 -0.634 -19.014 180 180 180
-56.598 -0.531 -9.675 180 180 180
-58.243 0.364 14.409 180 180 180
-87.998 -0.049 4.182 180 180 180
89.869 1.510 3.017 180 180 180
62.663 1.003 11.691 180 180 180
32.310 -0.934 1.158 180 180 180
33.590 0.517 6.311 180 180 180
87.495 -0.311 9.498 180 180 180
-36.580 -1.478 15.347 180 180 180
7.743 0.549 12.129 180 180 180
77.845 -0.866 -5.137 180 180 180
-13.761 -0.876 7.426 180 180 180
69.322 -0.538 -13.990 180 180 180
-19.653 0.103 9.109 180 180 180
-67.587 0.712 2.770 180 180 180
25.703 1.398 -8.654 180 180 180
58.088 -1.468 11.858 180 180 180
-36.829 -0.550 10.713 180 180 180
-74.822 -1.052 1.964 180 180 180
-88.280 -0.789 -19.715 180 180 180
-65.403 -1.677 -7.904 180 180 180
-7.406 1.437 -10.149 180 180 180
7.680 1.238 -2.284 180 180 180
-74.253 0.646 -3.969 180 180 180
33.542 1.338 -16.097 180 180 180
8.905 -1.470 -16.937 180 180 180
-15.108 -0.143 18.519 180 180 180
-89.190 -0.776 -14.599 180 180 180
-58.987 0.098 -18.622 180 180 180
-58.143 -1.394 12.558 180 180 180
74.925 1.609 8.723 180 180 180
7.823 1.689 -17.481 180 180 180
60.620 -0.739 -10.161 180 180 180
-65.325 -1.648 -13.761 180 180 180
-34.699 -0.307 14.882 180 180 180
-94.645 -1.047 -16.770 180 180 180
94.924 -0.254 -17.772 180 180 180
-50.572 0.240 -19.330 180 180 180
-27.806 1.724 17.352 180 180 180
-35.753 0.015 9.575 180 180 180
-84.151 1.597 7.251 180 180 180
2.413 -0.496 -3.902 180 180 180
-7.457 -0.428 -7.855 180 180 180
-3.593 -1.472 -2.628 180 180 180
-94.640 1.946 -12.141 180 180 180
-72.906 -1.123 -16.708 180 180 180
1.295 -1.315 18.901 180 180 180
-83.007 0.425 -10.117 180 180 180
83.009 -0.772 4.122 180 180 180
-25.235 -1.178 3.278 180 180 180
-64.715 -1.794 6.560 180 180 180
-79.435 1.270 -2.412 180 180 180
-92.916 1.036 1.547 180 180 180
29.226 -1.783 16.730 180 180 180
27.436 0.261 -17.458 180 180 180
-28.569 -1.169 -0.438 180 180 180
-96.661 1.838 -16.324 180 180 180
69.491 -0.973 1.498 180 180 180
93.213 -1.227 -2.892 180 180 180
32.469 -0.238 12.121 180 180 180
-49.720 -0.198 -14.678 180 180 180
35.756 0.317 10.635 180 180 180
-9.974 0.471 12.204 180 180 180
73.449 1.335 17.075 180 180 180
61.288 1.032 -7.829 180 180 180
-92.863 -1.005 -17.467 180 180 180
70.369 -0.606 9.460 180 180 180
43.828 -0.551 10.313 180 180 180
-32.736 -0.759 17.777 180 180 180
80.241 -0.350 -9.000 180 180 180
-95.567 1.635 -17.334 180 180 180
-80.645 -0.429 -7.250 180 180 180
-50.418 0.955 -11.410 180 180 180
-59.699 1.845 2.126 180 180 180
-30.163 -0.065 -18.250 180 180 180
81.229 -0.953 -1.728 180 180 180
-29.649 -0.832 -17.286 180 180 180
48.452 -0.880 -18.208 180 180 180
12.277 1.719 7.032 180 180 180
-98.710 -0.588 -19.702 180 180 180
-59.335 -1.745 12.651 180 180 180
-51.198 -1.382 -13.743 180 180 180
-22.533 -1.719 -16.714 180 180 180
-17.049 0.463 18.523 180 180 180
17.031 -0.910 -11.704 180 180 180
-5.152 -1.629 -11.286 180 180 180
84.145 1.365 15.920 180 180 180
-24.578 1.078 -7.995 180 180 180
-84.183 -0.475 3.611 180 180 180
68.822 0.042 -18.115 180 180 180
-59.576 -1.102 14.980 180 180 180
-28.254 0.928 -13.751 180 180 180
-81.482 0.249 4.754 180 180 180
50.644 -0.331 14.518 180 180 180
33.167 -1.338 19.643 180 180 180
51.050 1.108 4.117 180 180 180
-27.948 -0.473 -16.306 180 180 180
-92.213 0.644 4.492 180 180 180
50.300 1.964 9.983 180 180 180
-7.542 -1.093 -9.707 180 180 180
-97.980 0.741 9.812 180 180 180
-1.600 -0.582 12.574 180 180 180
-23.231 -1.468 6.084 180 180 180
67.496 -1.488 18.427 180 180 180
-34.053 -1.653 -15.088 180 180 180
-15.367 1.748 -3.282 180 180 180
82.556 -1.404 19.626 180 180 180
87.180 -1.474 8.931 180 180 180
-58.761 -0.938 16.111 180 180 180
-16.079 -1.948 6.050 180 180 180
89.654 -0.560 -16.612 180 180 180
23.052 -1.070 16.641 180 180 180
33.179 -1.074 -10.856 180 180 180
-22.218 -0.121 17.756 180 180 180
-76.426 0.266 -18.843 180 180 180
98.541 1.160 1.718 180 180 180
-66.122 -0.105 -3.042 180 180 180
-65.995 0.143 19.953 180 180 180
-17.481 -0.987 17.812 180 180 180
-47.124 0.891 18.606 180 180 180
58.146 -0.543 -5.994 180 180 180
-34.946 -0.053 7.920 180 180 180
-31.363 -0.677 -0.330 180 180 180
-12.287 -0.725 -12.088 180 180 180
95.336 -1.134 -8.762 180 180 180
96.661 1.376 -9.138 180 180 180
9.921 1.863 13.811 180 180 180
26.776 0.557 2.912 180 180 180
-87.351 1.709 -18.068 180 180 180
47.332 0.047 2.851 180 180 180
-25.460 0.563 -7.139 180 180 180
-86.582 1.860 1.235 180 180 180
27.234 1.492 6.619 180 180 180
85.894 -0.924 11.928 180 180 180
-12.899 0.187 10.452 180 180 180
-14.519 0.620 -19.762 180 180 180
-95.788 -0.417 -1.727 180 180 180
-35.214 -1.891 -7.485 180 180 180
-48.137 1.975 17.170 180 180 180
28.598 0.263 19.332 180 180 180
-95.142 0.371 -16.830 180 180 180
6.427 1.221 -4.890 180 180 180
-70.797 0.397 11.415 180 180 180
2.016 -0.642 8.600 180 180 180
91.349 -1.920 -17.523 180 180 180
84.931 -0.406 -10.747 180 180 180
-79.842 0.804 -15.164 180 180 180
51.216 0.232 16.936 180 180 180
91.859 0.771 -0.377 180 180 180
14.228 0.792 -0.111 180 180 180
11.971 0.755 -12.313 180 180 180
50.172 1.143 2.256 180 180 180
-64.474 -0.572 18.089 180 180 180
28.575 1.503 -8.302 180 180 180
-66.019 0.999 -14.729 180 180 180
46.393 -0.273 -8.337 180 180 180
85.653 -0.795 3.414 180 180 180
3.617 -0.158 2.369 180 180 180
-35.746 0.922 17.880 180 180 180
64.766 1.824 17.773 180 180 180
-70.985 0.220 4.418 180 180 180
98.959 1.769 19.026 180 180 180
13.764 0.093 -19.919 180 180 180
90.265 1.438 -4.175 180 180 180
-2.303 -0.506 -8.436 180 180 180
37.824 0.373 -13.605 180 180 180
87.610 0.391 -2.379 180 180 180
90.323 -0.013 -5.148 180 180 180
-84.429 0.915 -7.629 180 180 180
5.619 -0.600 15.157 180 180 180
-50.481 1.037 -9.710 180 180 180
52.998 1.163 4.592 180 180 180
-73.657 0.883 16.745 180 180 180
-0.462 -0.218 -2.112 180 180 180
-22.424 -1.927 -12.896 180 180 180
64.804 0.666 17.831 180 180 180
25.952 -0.480 -4.768 180 180 180
93.273 -1.682 -8.291 180 180 180
-3.566 0.663 14.548 180 180 180
63.749 -0.329 13.105 180 180 180
-26.570 -1.463 19.589 180 180 180
-71.413 1.127 9.839 180 180 180
-11.829 1.905 15.874 180 180 180
29.579 1.306 12.429 180 180 180
39.150 -0.702 10.376 180 180 180
36.473 -0.570 -14.589 180 180 180
50.890 1.511 8.260 180 180 180
30.860 -1.349 6.371 180 180 180
-68.269 0.125 11.620 180 180 180
97.113 1.624 -6.816 180 180 180
89.449 1.593 -16.782 180 180 180
-28.337 -0.852 4.728 180 180 180
-88.813 -0.235 3.757 180 180 180
-59.653 0.381 -2.135 180 180 180
68.911 1.922 -19.104 180 180 180
-31.711 -1.076 -17.403 180 180 180
-92.512 1.549 -14.088 180 180 180
-67.022 0.885 -3.997 180 180 180
-42.769 -1.564 3.991 180 180 180
-34.835 0.724 -10.817 180 180 180
71.225 -1.988 -18.145 180 180 180
-99.154 -1.416 5.109 180 180 180
-8.234 -1.766 -8.176 180 180 180
-89.946 -1.805 -17.051 180 180 180
39.625 -0.645 -10.014 180 180 180
-26.092 -0.596 -16.583 180 180 180
69.942 -0.790 0.619 180 180 180
79.752 -0.179 -18.562 180 180 180
46.665 -1.379 6.293 180 180 180
63.125 1.488 -8.844 180 180 180
78.312 -1.152 -7.062 180 180 180
-44.059 0.185 12.281 180 180 180
46.730 1.171 -9.943 180 180 180
